VERSION
FIELDS x y z
SIZE 4 4 4
TYPE F F F
COUNT 1 1 1
WIDTH 1669
HEIGHT 1
VIEWPOINT 0 0 0 1 0 0 0
POINTS 1669
DATA ascii
-0.199569 0.221515 0.36397
-0.198478 0.221515 0.36397
-0.19691 0.22098 0.36309
-0.195822 0.22098 0.36309
-0.193646 0.22098 0.36309
-0.192558 0.22098 0.36309
-0.19147 0.22098 0.36309
-0.189293 0.22098 0.36309
-0.188205 0.22098 0.36309
-0.187117 0.22098 0.36309
-0.186029 0.22098 0.36309
-0.184941 0.22098 0.36309
-0.183852 0.22098 0.36309
-0.182764 0.22098 0.36309
-0.182116 0.221515 0.36397
-0.179934 0.221515 0.36397
-0.178844 0.221515 0.36397
-0.177753 0.221515 0.36397
-0.177089 0.22205 0.364849
-0.175995 0.22205 0.364849
-0.174902 0.22205 0.364849
-0.169153 0.22312 0.366607
-0.163659 0.22312 0.366607
-0.16256 0.22312 0.366607
-0.161462 0.22312 0.366607
-0.101276 0.223655 0.367486
-0.100174 0.223655 0.367486
-0.0946676 0.223655 0.367486
-0.0937901 0.22419 0.368365
-0.0926862 0.22419 0.368365
-0.0918008 0.224725 0.369245
-0.0906942 0.224725 0.369245
-0.0895876 0.224725 0.369245
-0.088481 0.224725 0.369245
-0.0873744 0.224725 0.369245
-0.0862678 0.224725 0.369245
-0.0851612 0.224725 0.369245
-0.0840546 0.224725 0.369245
-0.082948 0.224725 0.369245
-0.0818414 0.224725 0.369245
-0.0805425 0.22419 0.368365
-0.0794386 0.22419 0.368365
-0.0785215 0.224725 0.369245
-0.077415 0.224725 0.369245
-0.0761267 0.22419 0.368365
-0.0750227 0.22419 0.368365
-0.0739187 0.22419 0.368365
-0.0728148 0.22419 0.368365
-0.0717108 0.22419 0.368365
-0.0706068 0.22419 0.368365
-0.0695029 0.22419 0.368365
-0.0683989 0.22419 0.368365
-0.0672949 0.22419 0.368365
-0.066191 0.22419 0.368365
-0.0652423 0.224725 0.369245
-0.0641357 0.224725 0.369245
-0.0630291 0.224725 0.369245
-0.0619225 0.224725 0.369245
-0.0608159 0.224725 0.369245
-0.0597093 0.224725 0.369245
-0.0586027 0.224725 0.369245
-0.0574961 0.224725 0.369245
-0.0563895 0.224725 0.369245
-0.0552829 0.224725 0.369245
-0.0540473 0.22419 0.368365
-0.02976 0.22419 0.368365
-0.0254046 0.224725 0.369245
-0.024298 0.224725 0.369245
-0.0231914 0.224725 0.369245
-0.0220848 0.224725 0.369245
-0.0209782 0.224725 0.369245
-0.0198716 0.224725 0.369245
-0.018765 0.224725 0.369245
-0.0176584 0.224725 0.369245
-0.0165518 0.224725 0.369245
-0.0154452 0.224725 0.369245
-0.0143386 0.224725 0.369245
-0.013232 0.224725 0.369245
-0.0121254 0.224725 0.369245
-0.00991221 0.224725 0.369245
-0.00880561 0.224725 0.369245
-0.007699 0.224725 0.369245
-0.0065924 0.224725 0.369245
-0.0054858 0.224725 0.369245
-0.0043792 0.224725 0.369245
-0.0032726 0.224725 0.369245
-0.00216599 0.224725 0.369245
-0.00105939 0.224725 0.369245
4.72116e-05 0.224725 0.369245
0.00115381 0.224725 0.369245
0.00226042 0.224725 0.369245
0.00336702 0.224725 0.369245
0.00447362 0.224725 0.369245
0.00558022 0.224725 0.369245
0.00668683 0.224725 0.369245
0.00779343 0.224725 0.369245
0.00890003 0.224725 0.369245
0.0100066 0.224725 0.369245
0.0110868 0.22419 0.368365
0.0121907 0.22419 0.368365
0.0132947 0.22419 0.368365
0.0143987 0.22419 0.368365
0.0155026 0.22419 0.368365
0.0166066 0.22419 0.368365
0.0177528 0.224725 0.369245
0.0188595 0.224725 0.369245
0.0199661 0.224725 0.369245
0.0210727 0.224725 0.369245
0.0221793 0.224725 0.369245
0.0232859 0.224725 0.369245
0.0243925 0.224725 0.369245
0.0254991 0.224725 0.369245
0.0266057 0.224725 0.369245
0.0277123 0.224725 0.369245
0.0288189 0.224725 0.369245
0.0299255 0.224725 0.369245
0.0310321 0.224725 0.369245
0.0322152 0.22526 0.370124
0.0333244 0.22526 0.370124
0.0344337 0.22526 0.370124
0.0356273 0.225795 0.371003
0.0367392 0.225795 0.371003
0.0378511 0.225795 0.371003
0.0390553 0.22633 0.371882
0.0435133 0.22633 0.371882
0.0446278 0.22633 0.371882
0.0456342 0.225795 0.371003
0.0467461 0.225795 0.371003
0.0478579 0.225795 0.371003
0.0489698 0.225795 0.371003
0.049963 0.22526 0.370124
0.0510722 0.22526 0.370124
0.0521815 0.22526 0.370124
0.0532907 0.22526 0.370124
0.0543999 0.22526 0.370124
0.0553773 0.224725 0.369245
0.0566184 0.22526 0.370124
0.0577277 0.22526 0.370124
0.0588369 0.22526 0.370124
0.0599461 0.22526 0.370124
0.0610554 0.22526 0.370124
0.0621646 0.22526 0.370124
0.0634241 0.225795 0.371003
0.064536 0.225795 0.371003
0.0656479 0.225795 0.371003
0.0669179 0.22633 0.371882
0.0680325 0.22633 0.371882
0.0702615 0.22633 0.371882
0.071376 0.22633 0.371882
0.0724905 0.22633 0.371882
0.073779 0.226865 0.372761
0.0748961 0.226865 0.372761
0.0760133 0.226865 0.372761
0.0771304 0.226865 0.372761
0.0782476 0.226865 0.372761
0.0791775 0.22633 0.371882
0.080292 0.22633 0.371882
0.082326 0.225795 0.371003
0.0834378 0.225795 0.371003
0.0843493 0.22526 0.370124
0.0854586 0.22526 0.370124
0.0865678 0.22526 0.370124
0.0876771 0.22526 0.370124
0.0885754 0.224725 0.369245
0.089682 0.224725 0.369245
0.0907886 0.224725 0.369245
0.0918952 0.224725 0.369245
0.0930018 0.224725 0.369245
0.0943325 0.22526 0.370124
0.0954417 0.22526 0.370124
0.0965509 0.22526 0.370124
0.0976602 0.22526 0.370124
0.0987694 0.22526 0.370124
0.0998787 0.22526 0.370124
0.101228 0.225795 0.371003
0.10234 0.225795 0.371003
0.103452 0.225795 0.371003
0.104563 0.225795 0.371003
0.105926 0.22633 0.371882
0.10704 0.22633 0.371882
0.108155 0.22633 0.371882
0.109269 0.22633 0.371882
0.110384 0.22633 0.371882
0.111498 0.22633 0.371882
0.112879 0.226865 0.372761
0.113727 0.22633 0.371882
0.115113 0.226865 0.372761
0.11623 0.226865 0.372761
0.117348 0.226865 0.372761
0.118465 0.226865 0.372761
0.119864 0.2274 0.37364
0.120984 0.2274 0.37364
0.121816 0.226865 0.372761
0.122933 0.226865 0.372761
0.12405 0.226865 0.372761
0.125167 0.226865 0.372761
0.126285 0.226865 0.372761
0.127402 0.226865 0.372761
0.128216 0.22633 0.371882
0.12933 0.22633 0.371882
0.130136 0.225795 0.371003
0.130937 0.22526 0.370124
0.132047 0.22526 0.370124
0.132839 0.224725 0.369245
0.133946 0.224725 0.369245
0.135053 0.224725 0.369245
0.136159 0.224725 0.369245
0.137266 0.224725 0.369245
0.138372 0.224725 0.369245
0.139479 0.224725 0.369245
0.14092 0.22526 0.370124
0.14203 0.22526 0.370124
0.143139 0.22526 0.370124
0.144248 0.22526 0.370124
0.145703 0.225795 0.371003
0.147162 0.22633 0.371882
0.148277 0.22633 0.371882
0.149391 0.22633 0.371882
0.150506 0.22633 0.371882
0.151979 0.226865 0.372761
0.153096 0.226865 0.372761
0.154213 0.226865 0.372761
0.15533 0.226865 0.372761
0.156447 0.226865 0.372761
0.157565 0.226865 0.372761
0.159056 0.2274 0.37364
0.160176 0.2274 0.37364
0.161296 0.2274 0.37364
0.162415 0.2274 0.37364
0.163535 0.2274 0.37364
0.164655 0.2274 0.37364
0.165775 0.2274 0.37364
0.166894 0.2274 0.37364
0.168014 0.2274 0.37364
0.169134 0.2274 0.37364
0.170254 0.2274 0.37364
0.171374 0.2274 0.37364
0.172493 0.2274 0.37364
0.173205 0.226865 0.372761
0.174322 0.226865 0.372761
0.175439 0.226865 0.372761
0.176556 0.226865 0.372761
0.177673 0.226865 0.372761
0.17879 0.226865 0.372761
0.179907 0.226865 0.372761
0.181025 0.226865 0.372761
0.182142 0.226865 0.372761
0.183259 0.226865 0.372761
0.184376 0.226865 0.372761
0.185493 0.226865 0.372761
0.18661 0.226865 0.372761
0.187727 0.226865 0.372761
0.188845 0.226865 0.372761
0.189962 0.226865 0.372761
0.191079 0.226865 0.372761
0.192196 0.226865 0.372761
0.193313 0.226865 0.372761
0.19443 0.226865 0.372761
0.195547 0.226865 0.372761
-0.244881 0.222823 0.364076
-0.243788 0.222823 0.364076
-0.242694 0.222823 0.364076
-0.241601 0.222823 0.364076
-0.240508 0.222823 0.364076
-0.239414 0.222823 0.364076
-0.238321 0.222823 0.364076
-0.237227 0.222823 0.364076
-0.236134 0.222823 0.364076
-0.23504 0.222823 0.364076
-0.233947 0.222823 0.364076
-0.232854 0.222823 0.364076
-0.23176 0.222823 0.364076
-0.230667 0.222823 0.364076
-0.230127 0.22336 0.364953
-0.22903 0.22336 0.364953
-0.227934 0.22336 0.364953
-0.226838 0.22336 0.364953
-0.225742 0.22336 0.364953
-0.224646 0.22336 0.364953
-0.22355 0.22336 0.364953
-0.222454 0.22336 0.364953
-0.221358 0.22336 0.364953
-0.220262 0.22336 0.364953
-0.219166 0.22336 0.364953
-0.21807 0.22336 0.364953
-0.216974 0.22336 0.364953
-0.215878 0.22336 0.364953
-0.214782 0.22336 0.364953
-0.213686 0.22336 0.364953
-0.21259 0.22336 0.364953
-0.211493 0.22336 0.364953
-0.210397 0.22336 0.364953
-0.208798 0.222823 0.364076
-0.207705 0.222823 0.364076
-0.206611 0.222823 0.364076
-0.205518 0.222823 0.364076
-0.203932 0.222286 0.363198
-0.202841 0.222286 0.363198
-0.20175 0.222286 0.363198
-0.20066 0.222286 0.363198
-0.199569 0.222286 0.363198
-0.198478 0.222286 0.363198
-0.197387 0.222286 0.363198
-0.195822 0.221749 0.362321
-0.194734 0.221749 0.362321
-0.194115 0.222286 0.363198
-0.193024 0.222286 0.363198
-0.19147 0.221749 0.362321
-0.190381 0.221749 0.362321
-0.189293 0.221749 0.362321
-0.188205 0.221749 0.362321
-0.187117 0.221749 0.362321
-0.186029 0.221749 0.362321
-0.185388 0.222286 0.363198
-0.184298 0.222286 0.363198
-0.183207 0.222286 0.363198
-0.182116 0.222286 0.363198
-0.181025 0.222286 0.363198
-0.179934 0.222286 0.363198
-0.178844 0.222286 0.363198
-0.177753 0.222286 0.363198
-0.177089 0.222823 0.364076
-0.175995 0.222823 0.364076
-0.174902 0.222823 0.364076
-0.174227 0.22336 0.364953
-0.173131 0.22336 0.364953
-0.172035 0.22336 0.364953
-0.170939 0.22336 0.364953
-0.169843 0.22336 0.364953
-0.169153 0.223897 0.36583
-0.168054 0.223897 0.36583
-0.166555 0.22336 0.364953
-0.165857 0.223897 0.36583
-0.164758 0.223897 0.36583
-0.163659 0.223897 0.36583
-0.16256 0.223897 0.36583
-0.161462 0.223897 0.36583
-0.160363 0.223897 0.36583
-0.159264 0.223897 0.36583
-0.158166 0.223897 0.36583
-0.157067 0.223897 0.36583
-0.155968 0.223897 0.36583
-0.15487 0.223897 0.36583
-0.153771 0.223897 0.36583
-0.152672 0.223897 0.36583
-0.151573 0.223897 0.36583
-0.150114 0.22336 0.364953
-0.147179 0.223897 0.36583
-0.14608 0.223897 0.36583
-0.144981 0.223897 0.36583
-0.142784 0.223897 0.36583
-0.138389 0.223897 0.36583
-0.13729 0.223897 0.36583
-0.136192 0.223897 0.36583
-0.135093 0.223897 0.36583
-0.133994 0.223897 0.36583
-0.132896 0.223897 0.36583
-0.131797 0.223897 0.36583
-0.131012 0.224434 0.366707
-0.12991 0.224434 0.366707
-0.128809 0.224434 0.366707
-0.127708 0.224434 0.366707
-0.126909 0.224971 0.367585
-0.126105 0.225508 0.368462
-0.124999 0.225508 0.368462
-0.124187 0.226045 0.369339
-0.123078 0.226045 0.369339
-0.121969 0.226045 0.369339
-0.121147 0.226582 0.370217
-0.120035 0.226582 0.370217
-0.118923 0.226582 0.370217
-0.117811 0.226582 0.370217
-0.116699 0.226582 0.370217
-0.115313 0.226045 0.369339
-0.114204 0.226045 0.369339
-0.112826 0.225508 0.368462
-0.11172 0.225508 0.368462
-0.11035 0.224971 0.367585
-0.109246 0.224971 0.367585
-0.108142 0.224971 0.367585
-0.106782 0.224434 0.366707
-0.105681 0.224434 0.366707
-0.10458 0.224434 0.366707
-0.103478 0.224434 0.366707
-0.102377 0.224434 0.366707
-0.101276 0.224434 0.366707
-0.100174 0.224434 0.366707
-0.099073 0.224434 0.366707
-0.0979716 0.224434 0.366707
-0.0968703 0.224434 0.366707
-0.095769 0.224434 0.366707
-0.0946676 0.224434 0.366707
-0.0935663 0.224434 0.366707
-0.092465 0.224434 0.366707
-0.0915822 0.224971 0.367585
-0.0904782 0.224971 0.367585
-0.0893743 0.224971 0.367585
-0.0882703 0.224971 0.367585
-0.0871663 0.224971 0.367585
-0.0860624 0.224971 0.367585
-0.0849584 0.224971 0.367585
-0.0838544 0.224971 0.367585
-0.0827505 0.224971 0.367585
-0.0816465 0.224971 0.367585
-0.0805425 0.224971 0.367585
-0.0794386 0.224971 0.367585
-0.0783346 0.224971 0.367585
-0.0772306 0.224971 0.367585
-0.0761267 0.224971 0.367585
-0.0750227 0.224971 0.367585
-0.0739187 0.224971 0.367585
-0.0728148 0.224971 0.367585
-0.0717108 0.224971 0.367585
-0.0706068 0.224971 0.367585
-0.0695029 0.224971 0.367585
-0.0683989 0.224971 0.367585
-0.0672949 0.224971 0.367585
-0.066191 0.224971 0.367585
-0.0652423 0.225508 0.368462
-0.0641357 0.225508 0.368462
-0.0630291 0.225508 0.368462
-0.0619225 0.225508 0.368462
-0.0608159 0.225508 0.368462
-0.0597093 0.225508 0.368462
-0.0586027 0.225508 0.368462
-0.0574961 0.225508 0.368462
-0.0563895 0.225508 0.368462
-0.0552829 0.225508 0.368462
-0.0540473 0.224971 0.367585
-0.0529433 0.224971 0.367585
-0.0518394 0.224971 0.367585
-0.0507354 0.224971 0.367585
-0.0496314 0.224971 0.367585
-0.0485275 0.224971 0.367585
-0.0473103 0.224434 0.366707
-0.046209 0.224434 0.366707
-0.0451077 0.224434 0.366707
-0.0440063 0.224434 0.366707
-0.042905 0.224434 0.366707
-0.0418037 0.224434 0.366707
-0.0407023 0.224434 0.366707
-0.039601 0.224434 0.366707
-0.0384997 0.224434 0.366707
-0.0373983 0.224434 0.366707
-0.036297 0.224434 0.366707
-0.0351957 0.224434 0.366707
-0.0340943 0.224434 0.366707
-0.032993 0.224434 0.366707
-0.031968 0.224971 0.367585
-0.030864 0.224971 0.367585
-0.02976 0.224971 0.367585
-0.0286561 0.224971 0.367585
-0.0276178 0.225508 0.368462
-0.0265112 0.225508 0.368462
-0.0231914 0.225508 0.368462
-0.0220848 0.225508 0.368462
-0.0209782 0.225508 0.368462
-0.0198716 0.225508 0.368462
-0.018765 0.225508 0.368462
-0.0176584 0.225508 0.368462
-0.0165518 0.225508 0.368462
-0.0154452 0.225508 0.368462
-0.0143386 0.225508 0.368462
-0.013232 0.225508 0.368462
-0.00880561 0.225508 0.368462
-0.007699 0.225508 0.368462
-0.0065924 0.225508 0.368462
-0.0054858 0.225508 0.368462
-0.0043792 0.225508 0.368462
-0.0032726 0.225508 0.368462
-0.00216599 0.225508 0.368462
-0.00105939 0.225508 0.368462
4.72116e-05 0.225508 0.368462
0.00115381 0.225508 0.368462
0.00226042 0.225508 0.368462
0.00336702 0.225508 0.368462
0.00447362 0.225508 0.368462
0.00558022 0.225508 0.368462
0.00668683 0.225508 0.368462
0.00779343 0.225508 0.368462
0.00890003 0.225508 0.368462
0.0100066 0.225508 0.368462
0.0111132 0.225508 0.368462
0.0121907 0.224971 0.367585
0.0132947 0.224971 0.367585
0.0143987 0.224971 0.367585
0.0155396 0.225508 0.368462
0.0166462 0.225508 0.368462
0.0177528 0.225508 0.368462
0.0188595 0.225508 0.368462
0.0199661 0.225508 0.368462
0.0210727 0.225508 0.368462
0.0221793 0.225508 0.368462
0.0232859 0.225508 0.368462
0.0243925 0.225508 0.368462
0.0254991 0.225508 0.368462
0.0266057 0.225508 0.368462
0.0277123 0.225508 0.368462
0.0288189 0.225508 0.368462
0.0322152 0.226045 0.369339
0.0333244 0.226045 0.369339
0.0345155 0.226582 0.370217
0.0356273 0.226582 0.370217
0.0367392 0.226582 0.370217
0.0378511 0.226582 0.370217
0.0390553 0.227118 0.371094
0.0401698 0.227118 0.371094
0.0423988 0.227118 0.371094
0.0435133 0.227118 0.371094
0.0445223 0.226582 0.370217
0.0456342 0.226582 0.370217
0.0467461 0.226582 0.370217
0.0478579 0.226582 0.370217
0.0488538 0.226045 0.369339
0.049963 0.226045 0.369339
0.0510722 0.226045 0.369339
0.0521815 0.226045 0.369339
0.0531641 0.225508 0.368462
0.0542707 0.225508 0.368462
0.0553773 0.225508 0.368462
0.0564839 0.225508 0.368462
0.0575905 0.225508 0.368462
0.0586971 0.225508 0.368462
0.0599461 0.226045 0.369339
0.0610554 0.226045 0.369339
0.0621646 0.226045 0.369339
0.0632738 0.226045 0.369339
0.064536 0.226582 0.370217
0.0656479 0.226582 0.370217
0.0667598 0.226582 0.370217
0.0680325 0.227118 0.371094
0.069147 0.227118 0.371094
0.0702615 0.227118 0.371094
0.071376 0.227118 0.371094
0.0724905 0.227118 0.371094
0.073779 0.227655 0.371971
0.0748961 0.227655 0.371971
0.0760133 0.227655 0.371971
0.0771304 0.227655 0.371971
0.078063 0.227118 0.371094
0.0791775 0.227118 0.371094
0.080292 0.227118 0.371094
0.0814065 0.227118 0.371094
0.082326 0.226582 0.370217
0.0834378 0.226582 0.370217
0.0843493 0.226045 0.369339
0.0854586 0.226045 0.369339
0.0865678 0.226045 0.369339
0.0874688 0.225508 0.368462
0.0885754 0.225508 0.368462
0.089682 0.225508 0.368462
0.0907886 0.225508 0.368462
0.0918952 0.225508 0.368462
0.0930018 0.225508 0.368462
0.0943325 0.226045 0.369339
0.0954417 0.226045 0.369339
0.0965509 0.226045 0.369339
0.0976602 0.226045 0.369339
0.0987694 0.226045 0.369339
0.0998787 0.226045 0.369339
0.101228 0.226582 0.370217
0.10234 0.226582 0.370217
0.103452 0.226582 0.370217
0.104563 0.226582 0.370217
0.105926 0.227118 0.371094
0.10704 0.227118 0.371094
0.108155 0.227118 0.371094
0.109269 0.227118 0.371094
0.110384 0.227118 0.371094
0.111498 0.227118 0.371094
0.112613 0.227118 0.371094
0.113996 0.227655 0.371971
0.115113 0.227655 0.371971
0.11623 0.227655 0.371971
0.117348 0.227655 0.371971
0.118744 0.228192 0.372848
0.119864 0.228192 0.372848
0.120984 0.228192 0.372848
0.122103 0.228192 0.372848
0.123223 0.228192 0.372848
0.12405 0.227655 0.371971
0.125167 0.227655 0.371971
0.126285 0.227655 0.371971
0.127402 0.227655 0.371971
0.128216 0.227118 0.371094
0.12933 0.227118 0.371094
0.130136 0.226582 0.370217
0.131248 0.226582 0.370217
0.132047 0.226045 0.369339
0.133156 0.226045 0.369339
0.133946 0.225508 0.368462
0.135053 0.225508 0.368462
0.136159 0.225508 0.368462
0.137266 0.225508 0.368462
0.138372 0.225508 0.368462
0.139479 0.225508 0.368462
0.140586 0.225508 0.368462
0.14203 0.226045 0.369339
0.143139 0.226045 0.369339
0.144248 0.226045 0.369339
0.145703 0.226582 0.370217
0.147162 0.227118 0.371094
0.148277 0.227118 0.371094
0.149391 0.227118 0.371094
0.150506 0.227118 0.371094
0.151979 0.227655 0.371971
0.153096 0.227655 0.371971
0.154213 0.227655 0.371971
0.15533 0.227655 0.371971
0.156447 0.227655 0.371971
0.157565 0.227655 0.371971
0.158682 0.227655 0.371971
0.159799 0.227655 0.371971
0.161296 0.228192 0.372848
0.162415 0.228192 0.372848
0.163535 0.228192 0.372848
0.164655 0.228192 0.372848
0.165775 0.228192 0.372848
0.166894 0.228192 0.372848
0.168014 0.228192 0.372848
0.169134 0.228192 0.372848
0.170254 0.228192 0.372848
0.171374 0.228192 0.372848
0.172087 0.227655 0.371971
0.173205 0.227655 0.371971
0.174322 0.227655 0.371971
0.175439 0.227655 0.371971
0.176556 0.227655 0.371971
0.177673 0.227655 0.371971
0.17879 0.227655 0.371971
0.179907 0.227655 0.371971
0.181025 0.227655 0.371971
0.182142 0.227655 0.371971
0.183259 0.227655 0.371971
0.184376 0.227655 0.371971
0.185493 0.227655 0.371971
0.18661 0.227655 0.371971
0.187727 0.227655 0.371971
0.188845 0.227655 0.371971
0.189962 0.227655 0.371971
0.191079 0.227655 0.371971
0.192196 0.227655 0.371971
0.193313 0.227655 0.371971
0.19443 0.227655 0.371971
0.195547 0.227655 0.371971
-0.244881 0.223596 0.363302
-0.243788 0.223596 0.363302
-0.242694 0.223596 0.363302
-0.241601 0.223596 0.363302
-0.240508 0.223596 0.363302
-0.239414 0.223596 0.363302
-0.238321 0.223596 0.363302
-0.237227 0.223596 0.363302
-0.236134 0.223596 0.363302
-0.23504 0.223596 0.363302
-0.234511 0.224135 0.364178
-0.233415 0.224135 0.364178
-0.232319 0.224135 0.364178
-0.231223 0.224135 0.364178
-0.230127 0.224135 0.364178
-0.22903 0.224135 0.364178
-0.227934 0.224135 0.364178
-0.226838 0.224135 0.364178
-0.225742 0.224135 0.364178
-0.224646 0.224135 0.364178
-0.22355 0.224135 0.364178
-0.222454 0.224135 0.364178
-0.221358 0.224135 0.364178
-0.220262 0.224135 0.364178
-0.219166 0.224135 0.364178
-0.21807 0.224135 0.364178
-0.216974 0.224135 0.364178
-0.215878 0.224135 0.364178
-0.214782 0.224135 0.364178
-0.213686 0.224135 0.364178
-0.21259 0.224135 0.364178
-0.210985 0.223596 0.363302
-0.209892 0.223596 0.363302
-0.208798 0.223596 0.363302
-0.207705 0.223596 0.363302
-0.206611 0.223596 0.363302
-0.205518 0.223596 0.363302
-0.203932 0.223057 0.362427
-0.202841 0.223057 0.362427
-0.20175 0.223057 0.362427
-0.20066 0.223057 0.362427
-0.199569 0.223057 0.362427
-0.198478 0.223057 0.362427
-0.197387 0.223057 0.362427
-0.196296 0.223057 0.362427
-0.195206 0.223057 0.362427
-0.194115 0.223057 0.362427
-0.193024 0.223057 0.362427
-0.191933 0.223057 0.362427
-0.190842 0.223057 0.362427
-0.189752 0.223057 0.362427
-0.188661 0.223057 0.362427
-0.18757 0.223057 0.362427
-0.186479 0.223057 0.362427
-0.185388 0.223057 0.362427
-0.184298 0.223057 0.362427
-0.183207 0.223057 0.362427
-0.182116 0.223057 0.362427
-0.181025 0.223057 0.362427
-0.179934 0.223057 0.362427
-0.179276 0.223596 0.363302
-0.178182 0.223596 0.363302
-0.177089 0.223596 0.363302
-0.175995 0.223596 0.363302
-0.174902 0.223596 0.363302
-0.174227 0.224135 0.364178
-0.173131 0.224135 0.364178
-0.172035 0.224135 0.364178
-0.170939 0.224135 0.364178
-0.169843 0.224135 0.364178
-0.168747 0.224135 0.364178
-0.167651 0.224135 0.364178
-0.166555 0.224135 0.364178
-0.165459 0.224135 0.364178
-0.164363 0.224135 0.364178
-0.163267 0.224135 0.364178
-0.16256 0.224674 0.365053
-0.161462 0.224674 0.365053
-0.160363 0.224674 0.365053
-0.159264 0.224674 0.365053
-0.158166 0.224674 0.365053
-0.157067 0.224674 0.365053
-0.155968 0.224674 0.365053
-0.15487 0.224674 0.365053
-0.153771 0.224674 0.365053
-0.152672 0.224674 0.365053
-0.151573 0.224674 0.365053
-0.150475 0.224674 0.365053
-0.149376 0.224674 0.365053
-0.148277 0.224674 0.365053
-0.147179 0.224674 0.365053
-0.14573 0.224135 0.364178
-0.144981 0.224674 0.365053
-0.143883 0.224674 0.365053
-0.142441 0.224135 0.364178
-0.141345 0.224135 0.364178
-0.140249 0.224135 0.364178
-0.139488 0.224674 0.365053
-0.138389 0.224674 0.365053
-0.13729 0.224674 0.365053
-0.136192 0.224674 0.365053
-0.135093 0.224674 0.365053
-0.133994 0.224674 0.365053
-0.132896 0.224674 0.365053
-0.131797 0.224674 0.365053
-0.130698 0.224674 0.365053
-0.12991 0.225213 0.365929
-0.128809 0.225213 0.365929
-0.127708 0.225213 0.365929
-0.126909 0.225751 0.366804
-0.126105 0.22629 0.36768
-0.124999 0.22629 0.36768
-0.123892 0.22629 0.36768
-0.123078 0.226829 0.368555
-0.121969 0.226829 0.368555
-0.12086 0.226829 0.368555
-0.120035 0.227368 0.36943
-0.118923 0.227368 0.36943
-0.117811 0.227368 0.36943
-0.116423 0.226829 0.368555
-0.115313 0.226829 0.368555
-0.114204 0.226829 0.368555
-0.112826 0.22629 0.36768
-0.11172 0.22629 0.36768
-0.11035 0.225751 0.366804
-0.109246 0.225751 0.366804
-0.107884 0.225213 0.365929
-0.106782 0.225213 0.365929
-0.105681 0.225213 0.365929
-0.10458 0.225213 0.365929
-0.103478 0.225213 0.365929
-0.102377 0.225213 0.365929
-0.101276 0.225213 0.365929
-0.100174 0.225213 0.365929
-0.099073 0.225213 0.365929
-0.0979716 0.225213 0.365929
-0.0968703 0.225213 0.365929
-0.095769 0.225213 0.365929
-0.0946676 0.225213 0.365929
-0.0935663 0.225213 0.365929
-0.092465 0.225213 0.365929
-0.0915822 0.225751 0.366804
-0.0904782 0.225751 0.366804
-0.0893743 0.225751 0.366804
-0.088481 0.22629 0.36768
-0.0873744 0.22629 0.36768
-0.0862678 0.22629 0.36768
-0.0851612 0.22629 0.36768
-0.0840546 0.22629 0.36768
-0.082948 0.22629 0.36768
-0.0818414 0.22629 0.36768
-0.0807348 0.22629 0.36768
-0.0796282 0.22629 0.36768
-0.0785215 0.22629 0.36768
-0.077415 0.22629 0.36768
-0.0763083 0.22629 0.36768
-0.0752017 0.22629 0.36768
-0.0739187 0.225751 0.366804
-0.0728148 0.225751 0.366804
-0.0717108 0.225751 0.366804
-0.0706068 0.225751 0.366804
-0.0696687 0.22629 0.36768
-0.0685621 0.22629 0.36768
-0.0674555 0.22629 0.36768
-0.0663489 0.22629 0.36768
-0.0652423 0.22629 0.36768
-0.0641357 0.22629 0.36768
-0.0630291 0.22629 0.36768
-0.0619225 0.22629 0.36768
-0.0608159 0.22629 0.36768
-0.0597093 0.22629 0.36768
-0.0586027 0.22629 0.36768
-0.0574961 0.22629 0.36768
-0.0563895 0.22629 0.36768
-0.0552829 0.22629 0.36768
-0.0541763 0.22629 0.36768
-0.0529433 0.225751 0.366804
-0.0518394 0.225751 0.366804
-0.0507354 0.225751 0.366804
-0.0496314 0.225751 0.366804
-0.0418037 0.225213 0.365929
-0.0407023 0.225213 0.365929
-0.039601 0.225213 0.365929
-0.0384997 0.225213 0.365929
-0.0373983 0.225213 0.365929
-0.036297 0.225213 0.365929
-0.0351957 0.225213 0.365929
-0.0340943 0.225213 0.365929
-0.032993 0.225213 0.365929
-0.031968 0.225751 0.366804
-0.030864 0.225751 0.366804
-0.02976 0.225751 0.366804
-0.0286561 0.225751 0.366804
-0.0276178 0.22629 0.36768
-0.0265112 0.22629 0.36768
-0.0254046 0.22629 0.36768
-0.024298 0.22629 0.36768
-0.0231914 0.22629 0.36768
-0.0220848 0.22629 0.36768
-0.0209782 0.22629 0.36768
-0.0199189 0.226829 0.368555
-0.018765 0.22629 0.36768
-0.0176584 0.22629 0.36768
-0.0165518 0.22629 0.36768
-0.0154452 0.22629 0.36768
-0.0143386 0.22629 0.36768
-0.013232 0.22629 0.36768
-0.0121254 0.22629 0.36768
-0.00991221 0.22629 0.36768
-0.00880561 0.22629 0.36768
-0.007699 0.22629 0.36768
-0.0065924 0.22629 0.36768
-0.0054858 0.22629 0.36768
-0.0043792 0.22629 0.36768
-0.00328039 0.226829 0.368555
-0.00217115 0.226829 0.368555
-0.00106191 0.226829 0.368555
4.7324e-05 0.226829 0.368555
0.00115381 0.22629 0.36768
0.0022658 0.226829 0.368555
0.00336702 0.22629 0.36768
0.00447362 0.22629 0.36768
0.00558022 0.22629 0.36768
0.00668683 0.22629 0.36768
0.00779343 0.22629 0.36768
0.00890003 0.22629 0.36768
0.0100066 0.22629 0.36768
0.0111132 0.22629 0.36768
0.0122198 0.22629 0.36768
0.0133264 0.22629 0.36768
0.0143987 0.225751 0.366804
0.0155396 0.22629 0.36768
0.0166462 0.22629 0.36768
0.0177528 0.22629 0.36768
0.0188595 0.22629 0.36768
0.0199661 0.22629 0.36768
0.0210727 0.22629 0.36768
0.0221793 0.22629 0.36768
0.0232859 0.22629 0.36768
0.0243925 0.22629 0.36768
0.0255598 0.226829 0.368555
0.026669 0.226829 0.368555
0.0277783 0.226829 0.368555
0.0288875 0.226829 0.368555
0.0299967 0.226829 0.368555
0.031106 0.226829 0.368555
0.0322152 0.226829 0.368555
0.0334036 0.227368 0.36943
0.0345155 0.227368 0.36943
0.0356273 0.227368 0.36943
0.0367392 0.227368 0.36943
0.0379408 0.227907 0.370306
0.0390553 0.227907 0.370306
0.0401698 0.227907 0.370306
0.0412843 0.227907 0.370306
0.0423988 0.227907 0.370306
0.0435133 0.227907 0.370306
0.0445223 0.227368 0.36943
0.0456342 0.227368 0.36943
0.0467461 0.227368 0.36943
0.0478579 0.227368 0.36943
0.0489698 0.227368 0.36943
0.049963 0.226829 0.368555
0.0510722 0.226829 0.368555
0.0521815 0.226829 0.368555
0.0532907 0.226829 0.368555
0.0543999 0.226829 0.368555
0.0555092 0.226829 0.368555
0.0566184 0.226829 0.368555
0.0577277 0.226829 0.368555
0.0588369 0.226829 0.368555
0.0599461 0.226829 0.368555
0.0610554 0.226829 0.368555
0.0623123 0.227368 0.36943
0.0634241 0.227368 0.36943
0.064536 0.227368 0.36943
0.0656479 0.227368 0.36943
0.0669179 0.227907 0.370306
0.0680325 0.227907 0.370306
0.069147 0.227907 0.370306
0.0702615 0.227907 0.370306
0.071376 0.227907 0.370306
0.0724905 0.227907 0.370306
0.073779 0.228445 0.371181
0.0748961 0.228445 0.371181
0.0760133 0.228445 0.371181
0.0771304 0.228445 0.371181
0.0782476 0.228445 0.371181
0.0791775 0.227907 0.370306
0.080292 0.227907 0.370306
0.0814065 0.227907 0.370306
0.082521 0.227907 0.370306
0.0834378 0.227368 0.36943
0.0845497 0.227368 0.36943
0.0854586 0.226829 0.368555
0.0865678 0.226829 0.368555
0.0876771 0.226829 0.368555
0.0887863 0.226829 0.368555
0.0898955 0.226829 0.368555
0.0910048 0.226829 0.368555
0.092114 0.226829 0.368555
0.0932232 0.226829 0.368555
0.0943325 0.226829 0.368555
0.0954417 0.226829 0.368555
0.0965509 0.226829 0.368555
0.0978922 0.227368 0.36943
0.099004 0.227368 0.36943
0.100116 0.227368 0.36943
0.101228 0.227368 0.36943
0.10234 0.227368 0.36943
0.103452 0.227368 0.36943
0.104811 0.227907 0.370306
0.105926 0.227907 0.370306
0.10704 0.227907 0.370306
0.108155 0.227907 0.370306
0.109269 0.227907 0.370306
0.110384 0.227907 0.370306
0.111498 0.227907 0.370306
0.112613 0.227907 0.370306
0.113996 0.228445 0.371181
0.115113 0.228445 0.371181
0.11623 0.228445 0.371181
0.117624 0.228984 0.372057
0.118744 0.228984 0.372057
0.119864 0.228984 0.372057
0.120984 0.228984 0.372057
0.122103 0.228984 0.372057
0.123223 0.228984 0.372057
0.12405 0.228445 0.371181
0.125167 0.228445 0.371181
0.126285 0.228445 0.371181
0.127402 0.228445 0.371181
0.128216 0.227907 0.370306
0.12933 0.227907 0.370306
0.130136 0.227368 0.36943
0.131248 0.227368 0.36943
0.132047 0.226829 0.368555
0.133156 0.226829 0.368555
0.133946 0.22629 0.36768
0.135053 0.22629 0.36768
0.136159 0.22629 0.36768
0.137266 0.22629 0.36768
0.138372 0.22629 0.36768
0.139479 0.22629 0.36768
0.14092 0.226829 0.368555
0.14203 0.226829 0.368555
0.143139 0.226829 0.368555
0.144591 0.227368 0.36943
0.145703 0.227368 0.36943
0.147162 0.227907 0.370306
0.148277 0.227907 0.370306
0.149391 0.227907 0.370306
0.150506 0.227907 0.370306
0.151979 0.228445 0.371181
0.153096 0.228445 0.371181
0.154213 0.228445 0.371181
0.15533 0.228445 0.371181
0.156447 0.228445 0.371181
0.157565 0.228445 0.371181
0.159056 0.228984 0.372057
0.160176 0.228984 0.372057
0.161296 0.228984 0.372057
0.162415 0.228984 0.372057
0.163535 0.228984 0.372057
0.164655 0.228984 0.372057
0.165775 0.228984 0.372057
0.166894 0.228984 0.372057
0.168014 0.228984 0.372057
0.169134 0.228984 0.372057
0.170254 0.228984 0.372057
0.171374 0.228984 0.372057
0.172493 0.228984 0.372057
0.173613 0.228984 0.372057
0.174322 0.228445 0.371181
0.175439 0.228445 0.371181
0.176556 0.228445 0.371181
0.177673 0.228445 0.371181
0.17879 0.228445 0.371181
0.179907 0.228445 0.371181
0.181025 0.228445 0.371181
0.182142 0.228445 0.371181
0.183259 0.228445 0.371181
0.184376 0.228445 0.371181
0.185493 0.228445 0.371181
0.18661 0.228445 0.371181
0.187727 0.228445 0.371181
0.188845 0.228445 0.371181
0.189962 0.228445 0.371181
0.191529 0.228984 0.372057
0.192649 0.228984 0.372057
0.193769 0.228984 0.372057
0.194889 0.228984 0.372057
0.195547 0.228445 0.371181
-0.244881 0.224369 0.362529
-0.243788 0.224369 0.362529
-0.242694 0.224369 0.362529
-0.241601 0.224369 0.362529
-0.240508 0.224369 0.362529
-0.239414 0.224369 0.362529
-0.238321 0.224369 0.362529
-0.237227 0.224369 0.362529
-0.236703 0.22491 0.363403
-0.235607 0.22491 0.363403
-0.234511 0.22491 0.363403
-0.233415 0.22491 0.363403
-0.232319 0.22491 0.363403
-0.231223 0.22491 0.363403
-0.230127 0.22491 0.363403
-0.22903 0.22491 0.363403
-0.227934 0.22491 0.363403
-0.226838 0.22491 0.363403
-0.225742 0.22491 0.363403
-0.224646 0.22491 0.363403
-0.22355 0.22491 0.363403
-0.222454 0.22491 0.363403
-0.221358 0.22491 0.363403
-0.220262 0.22491 0.363403
-0.219166 0.22491 0.363403
-0.21807 0.22491 0.363403
-0.216974 0.22491 0.363403
-0.215878 0.22491 0.363403
-0.214782 0.22491 0.363403
-0.213686 0.22491 0.363403
-0.21259 0.22491 0.363403
-0.211493 0.22491 0.363403
-0.210397 0.22491 0.363403
-0.209301 0.22491 0.363403
-0.207705 0.224369 0.362529
-0.206611 0.224369 0.362529
-0.205518 0.224369 0.362529
-0.204424 0.224369 0.362529
-0.203331 0.224369 0.362529
-0.202238 0.224369 0.362529
-0.201144 0.224369 0.362529
-0.199569 0.223829 0.361656
-0.198478 0.223829 0.361656
-0.197387 0.223829 0.361656
-0.196296 0.223829 0.361656
-0.195206 0.223829 0.361656
-0.194115 0.223829 0.361656
-0.193024 0.223829 0.361656
-0.191933 0.223829 0.361656
-0.190842 0.223829 0.361656
-0.189752 0.223829 0.361656
-0.188661 0.223829 0.361656
-0.18757 0.223829 0.361656
-0.186479 0.223829 0.361656
-0.185388 0.223829 0.361656
-0.184298 0.223829 0.361656
-0.183207 0.223829 0.361656
-0.182116 0.223829 0.361656
-0.181462 0.224369 0.362529
-0.180369 0.224369 0.362529
-0.179276 0.224369 0.362529
-0.178182 0.224369 0.362529
-0.177089 0.224369 0.362529
-0.176419 0.22491 0.363403
-0.175323 0.22491 0.363403
-0.174227 0.22491 0.363403
-0.173131 0.22491 0.363403
-0.172035 0.22491 0.363403
-0.170939 0.22491 0.363403
-0.169843 0.22491 0.363403
-0.169153 0.225451 0.364276
-0.168054 0.225451 0.364276
-0.166555 0.22491 0.363403
-0.165857 0.225451 0.364276
-0.164758 0.225451 0.364276
-0.163659 0.225451 0.364276
-0.16256 0.225451 0.364276
-0.161462 0.225451 0.364276
-0.160363 0.225451 0.364276
-0.159264 0.225451 0.364276
-0.158166 0.225451 0.364276
-0.157067 0.225451 0.364276
-0.155968 0.225451 0.364276
-0.15487 0.225451 0.364276
-0.153771 0.225451 0.364276
-0.152672 0.225451 0.364276
-0.151573 0.225451 0.364276
-0.150475 0.225451 0.364276
-0.149376 0.225451 0.364276
-0.148277 0.225451 0.364276
-0.147179 0.225451 0.364276
-0.14608 0.225451 0.364276
-0.144981 0.225451 0.364276
-0.143883 0.225451 0.364276
-0.142784 0.225451 0.364276
-0.141685 0.225451 0.364276
-0.140586 0.225451 0.364276
-0.139488 0.225451 0.364276
-0.138389 0.225451 0.364276
-0.13729 0.225451 0.364276
-0.136192 0.225451 0.364276
-0.135093 0.225451 0.364276
-0.133994 0.225451 0.364276
-0.132896 0.225451 0.364276
-0.132113 0.225991 0.36515
-0.131012 0.225991 0.36515
-0.12991 0.225991 0.36515
-0.128809 0.225991 0.36515
-0.128013 0.226532 0.366024
-0.126909 0.226532 0.366024
-0.126105 0.227073 0.366897
-0.124999 0.227073 0.366897
-0.124187 0.227613 0.367771
-0.123078 0.227613 0.367771
-0.121969 0.227613 0.367771
-0.121147 0.228154 0.368644
-0.120035 0.228154 0.368644
-0.118923 0.228154 0.368644
-0.117811 0.228154 0.368644
-0.116699 0.228154 0.368644
-0.115313 0.227613 0.367771
-0.114204 0.227613 0.367771
-0.112826 0.227073 0.366897
-0.11172 0.227073 0.366897
-0.110613 0.227073 0.366897
-0.109246 0.226532 0.366024
-0.108142 0.226532 0.366024
-0.106782 0.225991 0.36515
-0.105681 0.225991 0.36515
-0.10458 0.225991 0.36515
-0.103478 0.225991 0.36515
-0.102377 0.225991 0.36515
-0.101276 0.225991 0.36515
-0.100174 0.225991 0.36515
-0.099073 0.225991 0.36515
-0.0979716 0.225991 0.36515
-0.0968703 0.225991 0.36515
-0.095769 0.225991 0.36515
-0.0946676 0.225991 0.36515
-0.0935663 0.225991 0.36515
-0.0926862 0.226532 0.366024
-0.0915822 0.226532 0.366024
-0.0904782 0.226532 0.366024
-0.0893743 0.226532 0.366024
-0.088481 0.227073 0.366897
-0.0873744 0.227073 0.366897
-0.0862678 0.227073 0.366897
-0.0851612 0.227073 0.366897
-0.0840546 0.227073 0.366897
-0.082948 0.227073 0.366897
-0.0818414 0.227073 0.366897
-0.0807348 0.227073 0.366897
-0.0796282 0.227073 0.366897
-0.0785215 0.227073 0.366897
-0.077415 0.227073 0.366897
-0.0763083 0.227073 0.366897
-0.0752017 0.227073 0.366897
-0.0740951 0.227073 0.366897
-0.0728148 0.226532 0.366024
-0.0718819 0.227073 0.366897
-0.0707753 0.227073 0.366897
-0.0696687 0.227073 0.366897
-0.0685621 0.227073 0.366897
-0.0674555 0.227073 0.366897
-0.0663489 0.227073 0.366897
-0.0652423 0.227073 0.366897
-0.0641357 0.227073 0.366897
-0.0630291 0.227073 0.366897
-0.0619225 0.227073 0.366897
-0.0608159 0.227073 0.366897
-0.0597093 0.227073 0.366897
-0.0586027 0.227073 0.366897
-0.0574961 0.227073 0.366897
-0.0563895 0.227073 0.366897
-0.0552829 0.227073 0.366897
-0.0541763 0.227073 0.366897
-0.0530697 0.227073 0.366897
-0.0519631 0.227073 0.366897
-0.0508565 0.227073 0.366897
-0.0496314 0.226532 0.366024
-0.0485275 0.226532 0.366024
-0.0474235 0.226532 0.366024
-0.0463195 0.226532 0.366024
-0.0452156 0.226532 0.366024
-0.0441116 0.226532 0.366024
-0.042905 0.225991 0.36515
-0.0418037 0.225991 0.36515
-0.0407023 0.225991 0.36515
-0.0396957 0.226532 0.366024
-0.0385918 0.226532 0.366024
-0.0374878 0.226532 0.366024
-0.0363838 0.226532 0.366024
-0.0352799 0.226532 0.366024
-0.0341759 0.226532 0.366024
-0.0330719 0.226532 0.366024
-0.031968 0.226532 0.366024
-0.030864 0.226532 0.366024
-0.0298311 0.227073 0.366897
-0.0287244 0.227073 0.366897
-0.0276178 0.227073 0.366897
-0.0265112 0.227073 0.366897
-0.0254046 0.227073 0.366897
-0.024298 0.227073 0.366897
-0.0231914 0.227073 0.366897
-0.0220848 0.227073 0.366897
-0.0210282 0.227613 0.367771
-0.0199189 0.227613 0.367771
-0.0188097 0.227613 0.367771
-0.0177005 0.227613 0.367771
-0.0165912 0.227613 0.367771
-0.015482 0.227613 0.367771
-0.0143728 0.227613 0.367771
-0.0132635 0.227613 0.367771
-0.0121543 0.227613 0.367771
-0.0110188 0.227073 0.366897
-0.00991221 0.227073 0.366897
-0.00880561 0.227073 0.366897
-0.007699 0.227073 0.366897
-0.0065924 0.227073 0.366897
-0.0054858 0.227073 0.366897
-0.00438962 0.227613 0.367771
-0.00328039 0.227613 0.367771
-0.00217115 0.227613 0.367771
-0.00106191 0.227613 0.367771
4.72116e-05 0.227073 0.366897
0.00115381 0.227073 0.366897
0.0022658 0.227613 0.367771
0.00336702 0.227073 0.366897
0.00448427 0.227613 0.367771
0.00558022 0.227073 0.366897
0.00668683 0.227073 0.366897
0.00779343 0.227073 0.366897
0.00890003 0.227073 0.366897
0.0100066 0.227073 0.366897
0.0111132 0.227073 0.366897
0.0122198 0.227073 0.366897
0.0133264 0.227073 0.366897
0.014433 0.227073 0.366897
0.0155396 0.227073 0.366897
0.0166462 0.227073 0.366897
0.0177528 0.227073 0.366897
0.0188595 0.227073 0.366897
0.0199661 0.227073 0.366897
0.0210727 0.227073 0.366897
0.0222321 0.227613 0.367771
0.0232859 0.227073 0.366897
0.0243925 0.227073 0.366897
0.0255598 0.227613 0.367771
0.026669 0.227613 0.367771
0.0277783 0.227613 0.367771
0.0288875 0.227613 0.367771
0.0299967 0.227613 0.367771
0.031106 0.227613 0.367771
0.0322917 0.228154 0.368644
0.0334036 0.228154 0.368644
0.0345155 0.228154 0.368644
0.0356273 0.228154 0.368644
0.0368263 0.228695 0.369518
0.0379408 0.228695 0.369518
0.0390553 0.228695 0.369518
0.0401698 0.228695 0.369518
0.0412843 0.228695 0.369518
0.0423988 0.228695 0.369518
0.0435133 0.228695 0.369518
0.0446278 0.228695 0.369518
0.0456342 0.228154 0.368644
0.0467461 0.228154 0.368644
0.0478579 0.228154 0.368644
0.0489698 0.228154 0.368644
0.049963 0.227613 0.367771
0.0510722 0.227613 0.367771
0.0521815 0.227613 0.367771
0.0532907 0.227613 0.367771
0.0543999 0.227613 0.367771
0.0555092 0.227613 0.367771
0.0566184 0.227613 0.367771
0.0577277 0.227613 0.367771
0.0588369 0.227613 0.367771
0.0599461 0.227613 0.367771
0.0612004 0.228154 0.368644
0.0623123 0.228154 0.368644
0.0634241 0.228154 0.368644
0.064536 0.228154 0.368644
0.0656479 0.228154 0.368644
0.0669179 0.228695 0.369518
0.0680325 0.228695 0.369518
0.069147 0.228695 0.369518
0.0702615 0.228695 0.369518
0.071376 0.228695 0.369518
0.0726619 0.229235 0.370391
0.073779 0.229235 0.370391
0.0748961 0.229235 0.370391
0.0760133 0.229235 0.370391
0.0771304 0.229235 0.370391
0.0782476 0.229235 0.370391
0.0793647 0.229235 0.370391
0.080292 0.228695 0.369518
0.0814065 0.228695 0.369518
0.082521 0.228695 0.369518
0.0834378 0.228154 0.368644
0.0845497 0.228154 0.368644
0.0856616 0.228154 0.368644
0.0867734 0.228154 0.368644
0.0876771 0.227613 0.367771
0.0887863 0.227613 0.367771
0.0898955 0.227613 0.367771
0.0910048 0.227613 0.367771
0.092114 0.227613 0.367771
0.0932232 0.227613 0.367771
0.0943325 0.227613 0.367771
0.0956684 0.228154 0.368644
0.0967803 0.228154 0.368644
0.0978922 0.228154 0.368644
0.099004 0.228154 0.368644
0.100116 0.228154 0.368644
0.101228 0.228154 0.368644
0.10234 0.228154 0.368644
0.103697 0.228695 0.369518
0.104811 0.228695 0.369518
0.105926 0.228695 0.369518
0.10704 0.228695 0.369518
0.108155 0.228695 0.369518
0.109269 0.228695 0.369518
0.110384 0.228695 0.369518
0.111498 0.228695 0.369518
0.112879 0.229235 0.370391
0.113996 0.229235 0.370391
0.115113 0.229235 0.370391
0.11623 0.229235 0.370391
0.117624 0.229776 0.371265
0.118744 0.229776 0.371265
0.119864 0.229776 0.371265
0.120984 0.229776 0.371265
0.122103 0.229776 0.371265
0.123223 0.229776 0.371265
0.124343 0.229776 0.371265
0.125167 0.229235 0.370391
0.126285 0.229235 0.370391
0.127402 0.229235 0.370391
0.128216 0.228695 0.369518
0.12933 0.228695 0.369518
0.130445 0.228695 0.369518
0.131248 0.228154 0.368644
0.13236 0.228154 0.368644
0.133156 0.227613 0.367771
0.134265 0.227613 0.367771
0.135374 0.227613 0.367771
0.136483 0.227613 0.367771
0.137593 0.227613 0.367771
0.138702 0.227613 0.367771
0.139811 0.227613 0.367771
0.14092 0.227613 0.367771
0.14203 0.227613 0.367771
0.143479 0.228154 0.368644
0.144591 0.228154 0.368644
0.145703 0.228154 0.368644
0.147162 0.228695 0.369518
0.148277 0.228695 0.369518
0.149391 0.228695 0.369518
0.150862 0.229235 0.370391
0.151979 0.229235 0.370391
0.153096 0.229235 0.370391
0.154213 0.229235 0.370391
0.15533 0.229235 0.370391
0.156447 0.229235 0.370391
0.157936 0.229776 0.371265
0.159056 0.229776 0.371265
0.160176 0.229776 0.371265
0.161296 0.229776 0.371265
0.162415 0.229776 0.371265
0.163535 0.229776 0.371265
0.164655 0.229776 0.371265
0.165775 0.229776 0.371265
0.166894 0.229776 0.371265
0.168014 0.229776 0.371265
0.169134 0.229776 0.371265
0.170254 0.229776 0.371265
0.171374 0.229776 0.371265
0.172493 0.229776 0.371265
0.173613 0.229776 0.371265
0.174733 0.229776 0.371265
0.175853 0.229776 0.371265
0.176556 0.229235 0.370391
0.177673 0.229235 0.370391
0.17879 0.229235 0.370391
0.179907 0.229235 0.370391
0.181025 0.229235 0.370391
0.182142 0.229235 0.370391
0.183259 0.229235 0.370391
0.184376 0.229235 0.370391
0.185493 0.229235 0.370391
0.18661 0.229235 0.370391
0.187727 0.229235 0.370391
0.18929 0.229776 0.371265
0.19041 0.229776 0.371265
0.191529 0.229776 0.371265
0.192649 0.229776 0.371265
0.193769 0.229776 0.371265
0.194889 0.229776 0.371265
0.196009 0.229776 0.371265
-0.244881 0.225143 0.361756
-0.243788 0.225143 0.361756
-0.242694 0.225143 0.361756
-0.241601 0.225143 0.361756
-0.240508 0.225143 0.361756
-0.239414 0.225143 0.361756
-0.238321 0.225143 0.361756
-0.237799 0.225685 0.362628
-0.236703 0.225685 0.362628
-0.235607 0.225685 0.362628
-0.234511 0.225685 0.362628
-0.233415 0.225685 0.362628
-0.232319 0.225685 0.362628
-0.231223 0.225685 0.362628
-0.230127 0.225685 0.362628
-0.22903 0.225685 0.362628
-0.227934 0.225685 0.362628
-0.226838 0.225685 0.362628
-0.225742 0.225685 0.362628
-0.224646 0.225685 0.362628
-0.22355 0.225685 0.362628
-0.222454 0.225685 0.362628
-0.221358 0.225685 0.362628
-0.220262 0.225685 0.362628
-0.219166 0.225685 0.362628
-0.21807 0.225685 0.362628
-0.216974 0.225685 0.362628
-0.215878 0.225685 0.362628
-0.214782 0.225685 0.362628
-0.213686 0.225685 0.362628
-0.21259 0.225685 0.362628
-0.211493 0.225685 0.362628
-0.210397 0.225685 0.362628
-0.209301 0.225685 0.362628
-0.208205 0.225685 0.362628
-0.207109 0.225685 0.362628
-0.205518 0.225143 0.361756
-0.204424 0.225143 0.361756
-0.203331 0.225143 0.361756
-0.202238 0.225143 0.361756
-0.201144 0.225143 0.361756
-0.200051 0.225143 0.361756
-0.198957 0.225143 0.361756
-0.197387 0.2246 0.360884
-0.196296 0.2246 0.360884
-0.195206 0.2246 0.360884
-0.194115 0.2246 0.360884
-0.193024 0.2246 0.360884
-0.191933 0.2246 0.360884
-0.190842 0.2246 0.360884
-0.189752 0.2246 0.360884
-0.188661 0.2246 0.360884
-0.188023 0.225143 0.361756
-0.18693 0.225143 0.361756
-0.185836 0.225143 0.361756
-0.184743 0.225143 0.361756
-0.183649 0.225143 0.361756
-0.182556 0.225143 0.361756
-0.181462 0.225143 0.361756
-0.180369 0.225143 0.361756
-0.179276 0.225143 0.361756
-0.178182 0.225143 0.361756
-0.177515 0.225685 0.362628
-0.176419 0.225685 0.362628
-0.175323 0.225685 0.362628
-0.174227 0.225685 0.362628
-0.173131 0.225685 0.362628
-0.172035 0.225685 0.362628
-0.17135 0.226228 0.363499
-0.170251 0.226228 0.363499
-0.169153 0.226228 0.363499
-0.167651 0.225685 0.362628
-0.166955 0.226228 0.363499
-0.165857 0.226228 0.363499
-0.164758 0.226228 0.363499
-0.163659 0.226228 0.363499
-0.16256 0.226228 0.363499
-0.161462 0.226228 0.363499
-0.160363 0.226228 0.363499
-0.159264 0.226228 0.363499
-0.158166 0.226228 0.363499
-0.157067 0.226228 0.363499
-0.155968 0.226228 0.363499
-0.15487 0.226228 0.363499
-0.153771 0.226228 0.363499
-0.152672 0.226228 0.363499
-0.151573 0.226228 0.363499
-0.150475 0.226228 0.363499
-0.149376 0.226228 0.363499
-0.148277 0.226228 0.363499
-0.147179 0.226228 0.363499
-0.14608 0.226228 0.363499
-0.144981 0.226228 0.363499
-0.143883 0.226228 0.363499
-0.142784 0.226228 0.363499
-0.141685 0.226228 0.363499
-0.140586 0.226228 0.363499
-0.139488 0.226228 0.363499
-0.138389 0.226228 0.363499
-0.13729 0.226228 0.363499
-0.136192 0.226228 0.363499
-0.135417 0.22677 0.364371
-0.134316 0.22677 0.364371
-0.133214 0.22677 0.364371
-0.132113 0.22677 0.364371
-0.131012 0.22677 0.364371
-0.12991 0.22677 0.364371
-0.129117 0.227313 0.365243
-0.128013 0.227313 0.365243
-0.127212 0.227855 0.366115
-0.126105 0.227855 0.366115
-0.124999 0.227855 0.366115
-0.124187 0.228398 0.366986
-0.123078 0.228398 0.366986
-0.122258 0.22894 0.367858
-0.121147 0.22894 0.367858
-0.120035 0.22894 0.367858
-0.118923 0.22894 0.367858
-0.117811 0.22894 0.367858
-0.116699 0.22894 0.367858
-0.115313 0.228398 0.366986
-0.114204 0.228398 0.366986
-0.113095 0.228398 0.366986
-0.11172 0.227855 0.366115
-0.110613 0.227855 0.366115
-0.109506 0.227855 0.366115
-0.108142 0.227313 0.365243
-0.107038 0.227313 0.365243
-0.105681 0.22677 0.364371
-0.10458 0.22677 0.364371
-0.103478 0.22677 0.364371
-0.102377 0.22677 0.364371
-0.101276 0.22677 0.364371
-0.100174 0.22677 0.364371
-0.099073 0.22677 0.364371
-0.0979716 0.22677 0.364371
-0.0968703 0.22677 0.364371
-0.0959981 0.227313 0.365243
-0.0948941 0.227313 0.365243
-0.0937901 0.227313 0.365243
-0.0926862 0.227313 0.365243
-0.0915822 0.227313 0.365243
-0.0906942 0.227855 0.366115
-0.0895876 0.227855 0.366115
-0.088481 0.227855 0.366115
-0.0873744 0.227855 0.366115
-0.0862678 0.227855 0.366115
-0.0851612 0.227855 0.366115
-0.0840546 0.227855 0.366115
-0.082948 0.227855 0.366115
-0.0818414 0.227855 0.366115
-0.0807348 0.227855 0.366115
-0.0796282 0.227855 0.366115
-0.0785215 0.227855 0.366115
-0.077415 0.227855 0.366115
-0.0763083 0.227855 0.366115
-0.0752017 0.227855 0.366115
-0.0740951 0.227855 0.366115
-0.0729885 0.227855 0.366115
-0.0718819 0.227855 0.366115
-0.0707753 0.227855 0.366115
-0.0696687 0.227855 0.366115
-0.0685621 0.227855 0.366115
-0.0674555 0.227855 0.366115
-0.0663489 0.227855 0.366115
-0.0652423 0.227855 0.366115
-0.0641357 0.227855 0.366115
-0.0631792 0.228398 0.366986
-0.0619225 0.227855 0.366115
-0.0609607 0.228398 0.366986
-0.0597093 0.227855 0.366115
-0.0586027 0.227855 0.366115
-0.0574961 0.227855 0.366115
-0.0563895 0.227855 0.366115
-0.0552829 0.227855 0.366115
-0.0541763 0.227855 0.366115
-0.0530697 0.227855 0.366115
-0.0519631 0.227855 0.366115
-0.0508565 0.227855 0.366115
-0.0496314 0.227313 0.365243
-0.0486433 0.227855 0.366115
-0.0474235 0.227313 0.365243
-0.0463195 0.227313 0.365243
-0.0452156 0.227313 0.365243
-0.0441116 0.227313 0.365243
-0.0430076 0.227313 0.365243
-0.0419037 0.227313 0.365243
-0.0407997 0.227313 0.365243
-0.0396957 0.227313 0.365243
-0.0385918 0.227313 0.365243
-0.0374878 0.227313 0.365243
-0.0363838 0.227313 0.365243
-0.0352799 0.227313 0.365243
-0.0341759 0.227313 0.365243
-0.0330719 0.227313 0.365243
-0.031968 0.227313 0.365243
-0.030864 0.227313 0.365243
-0.0298311 0.227855 0.366115
-0.0287244 0.227855 0.366115
-0.0276178 0.227855 0.366115
-0.0265112 0.227855 0.366115
-0.0254046 0.227855 0.366115
-0.0243559 0.228398 0.366986
-0.0232467 0.228398 0.366986
-0.0221374 0.228398 0.366986
-0.0210282 0.228398 0.366986
-0.0199189 0.228398 0.366986
-0.0188097 0.228398 0.366986
-0.0177005 0.228398 0.366986
-0.0165912 0.228398 0.366986
-0.015482 0.228398 0.366986
-0.0143728 0.228398 0.366986
-0.0132635 0.228398 0.366986
-0.0121543 0.228398 0.366986
-0.011045 0.228398 0.366986
-0.00993581 0.228398 0.366986
-0.00880561 0.227855 0.366115
-0.00771734 0.228398 0.366986
-0.0066081 0.228398 0.366986
-0.00549886 0.228398 0.366986
-0.00438962 0.228398 0.366986
-0.00328039 0.228398 0.366986
-0.00217115 0.228398 0.366986
-0.00106191 0.228398 0.366986
4.7324e-05 0.228398 0.366986
0.00115656 0.228398 0.366986
0.0022658 0.228398 0.366986
0.00337504 0.228398 0.366986
0.00448427 0.228398 0.366986
0.00559351 0.228398 0.366986
0.00670275 0.228398 0.366986
